ply
format ascii 1.0
comment Author: CloudCompare (TELECOM PARISTECH/EDF R&D)
obj_info Generated by CloudCompare!
element vertex 1351
property float x
property float y
property float z
property uchar red
property uchar green
property uchar blue
end_header
1.50005 0.0699815 0.594467 255 0 0 
1.50103 0.0701699 0.594515 255 0 0 
1.50202 0.0704007 0.594507 255 0 0 
1.503 0.0706109 0.594532 255 0 0 
1.50397 0.0708938 0.594479 255 0 0 
1.50491 0.0712719 0.594296 255 0 0 
1.50584 0.0716839 0.594079 255 0 0 
1.4767 0.0748004 0.639258 255 0 0 
1.47399 0.0638589 0.62635 255 0 0 
1.45725 0.145445 0.659885 255 0 0 
1.48616 0.0909086 0.673277 255 0 0 
1.44292 0.106872 0.633749 255 0 0 
1.4723 0.104403 0.678731 255 0 0 
1.46641 0.103234 0.67862 255 0 0 
1.47332 0.0924351 0.674808 255 0 0 
1.48025 0.0625967 0.616177 255 0 0 
1.47766 0.0750675 0.639218 255 0 0 
1.5136 0.0832937 0.583743 255 0 0 
1.51457 0.0835905 0.583649 255 0 0 
1.51559 0.0836876 0.583795 255 0 0 
1.51658 0.0838578 0.583857 255 0 0 
1.51759 0.0839573 0.584003 255 0 0 
1.51861 0.0840965 0.584117 255 0 0 
1.51959 0.0842752 0.584169 255 0 0 
1.52061 0.0844021 0.584292 255 0 0 
1.52162 0.0845377 0.584408 255 0 0 
1.52264 0.0846533 0.58454 255 0 0 
1.52362 0.0848027 0.584621 255 0 0 
1.52464 0.0849262 0.584748 255 0 0 
1.52565 0.0850322 0.584888 255 0 0 
1.52664 0.0852003 0.584954 255 0 0 
1.52763 0.0853658 0.585016 255 0 0 
1.52861 0.0855586 0.585061 255 0 0 
1.52956 0.0858789 0.584946 255 0 0 
1.47861 0.0753728 0.639148 255 0 0 
1.47956 0.0756758 0.639054 255 0 0 
1.4805 0.0759983 0.638959 255 0 0 
1.53303 0.0881851 0.583296 255 0 0 
1.53396 0.0885127 0.583235 255 0 0 
1.53485 0.0889739 0.583009 255 0 0 
1.48144 0.0763502 0.638819 255 0 0 
1.48238 0.0767013 0.638683 255 0 0 
1.41038 0.146273 0.66148 255 0 0 
1.48101 0.0776342 0.662028 255 0 0 
1.47175 0.0828578 0.645766 255 0 0 
1.48039 0.0891867 0.673609 255 0 0 
1.47303 0.0683687 0.633206 255 0 0 
1.42051 0.133419 0.64752 255 0 0 
1.47521 0.0678795 0.632276 255 0 0 
1.48331 0.0770442 0.638554 255 0 0 
1.52413 0.093167 0.602391 255 0 0 
1.47308 0.0975746 0.677599 255 0 0 
1.41378 0.1381 0.641653 255 0 0 
1.48426 0.0773681 0.638459 255 0 0 
1.48296 0.0992285 0.676298 255 0 0 
1.48521 0.0776624 0.638367 255 0 0 
1.48613 0.07806 0.638198 255 0 0 
1.48704 0.0785271 0.637971 255 0 0 
1.40675 0.148147 0.661061 255 0 0 
1.40625 0.149885 0.661442 255 0 0 
1.52671 0.104127 0.611871 255 0 0 
1.44405 0.0989284 0.598924 255 0 0 
1.47434 0.0802279 0.643059 255 0 0 
1.49011 0.0693336 0.626572 255 0 0 
1.48311 0.0693451 0.632643 255 0 0 
1.43254 0.133837 0.663353 255 0 0 
1.51902 0.117102 0.61319 255 0 0 
1.46734 0.075137 0.640671 255 0 0 
1.48572 0.0712487 0.633272 255 0 0 
1.4749 0.0645569 0.627814 255 0 0 
1.4839 0.0651046 0.623587 255 0 0 
1.44376 0.0981458 0.599534 255 0 0 
1.47785 0.160916 0.579257 255 0 0 
1.45176 0.170901 0.644205 255 0 0 
1.40189 0.151291 0.639347 255 0 0 
1.39921 0.156716 0.639907 255 0 0 
1.4591 0.137331 0.591219 255 0 0 
1.45176 0.155735 0.649506 255 0 0 
1.45805 0.135974 0.592243 255 0 0 
1.45398 0.124363 0.590185 255 0 0 
1.4877 0.0886103 0.645924 255 0 0 
1.50947 0.0480358 0.584096 255 0 0 
1.45566 0.181779 0.63532 255 0 0 
1.48384 0.0685233 0.59439 255 0 0 
1.48471 0.0690538 0.594089 255 0 0 
1.48556 0.0696734 0.59323 255 0 0 
1.48653 0.0699356 0.593192 255 0 0 
1.48747 0.07028 0.593063 255 0 0 
1.48841 0.070619 0.592938 255 0 0 
1.48947 0.0707714 0.593139 255 0 0 
1.49054 0.0705375 0.593567 255 0 0 
1.49159 0.0704611 0.593892 255 0 0 
1.49268 0.0703372 0.594293 255 0 0 
1.49372 0.0703286 0.59454 255 0 0 
1.49475 0.0703347 0.594785 255 0 0 
1.4958 0.0703653 0.595015 255 0 0 
1.49684 0.0704215 0.595226 255 0 0 
1.49786 0.0705129 0.59538 255 0 0 
1.49885 0.0706743 0.595449 255 0 0 
1.49984 0.0708559 0.595507 255 0 0 
1.50084 0.0710496 0.595553 255 0 0 
1.50182 0.0712548 0.595586 255 0 0 
1.5028 0.0714869 0.595574 255 0 0 
1.50376 0.071766 0.595522 255 0 0 
1.50473 0.0721247 0.595358 255 0 0 
1.50565 0.072519 0.595186 255 0 0 
1.50658 0.0729294 0.594965 255 0 0 
1.48794 0.0789145 0.637759 255 0 0 
1.46292 0.100576 0.676565 255 0 0 
1.47898 0.0776269 0.663436 255 0 0 
1.52219 0.092223 0.598907 255 0 0 
1.47327 0.104669 0.678665 255 0 0 
1.48818 0.0691102 0.628272 255 0 0 
1.46025 0.102902 0.67764 255 0 0 
1.47435 0.0924313 0.675046 255 0 0 
1.47997 0.0782086 0.640506 255 0 0 
1.52115 0.0922209 0.598675 255 0 0 
1.51439 0.0844041 0.58482 255 0 0 
1.51541 0.0845517 0.584897 255 0 0 
1.5164 0.0846965 0.584981 255 0 0 
1.51741 0.0848254 0.5851 255 0 0 
1.5184 0.0849949 0.585164 255 0 0 
1.51939 0.0851578 0.585232 255 0 0 
1.52041 0.0852935 0.585348 255 0 0 
1.52142 0.0854072 0.585479 255 0 0 
1.52243 0.0855224 0.585611 255 0 0 
1.52344 0.0856512 0.585732 255 0 0 
1.52443 0.0858234 0.585794 255 0 0 
1.52545 0.085953 0.585914 255 0 0 
1.52643 0.0860715 0.586017 255 0 0 
1.52745 0.0861858 0.58615 255 0 0 
1.52845 0.0863474 0.586215 255 0 0 
1.52942 0.0865762 0.586234 255 0 0 
1.4774 0.0718602 0.636553 255 0 0 
1.42786 0.135728 0.662684 255 0 0 
1.52003 0.0926724 0.599933 255 0 0 
1.53298 0.0885859 0.584939 255 0 0 
1.53391 0.0889104 0.58488 255 0 0 
1.42934 0.134197 0.662387 255 0 0 
1.45634 0.128779 0.586783 255 0 0 
1.47019 0.0671799 0.631808 255 0 0 
1.47629 0.0804623 0.667676 255 0 0 
1.47427 0.0720741 0.637554 255 0 0 
1.48004 0.0773616 0.66207 255 0 0 
1.45807 0.157401 0.659249 255 0 0 
1.4829 0.0702601 0.6336 255 0 0 
1.49195 0.0746835 0.631271 255 0 0 
1.49219 0.0736525 0.630431 255 0 0 
1.45441 0.125086 0.589626 255 0 0 
1.44094 0.0893686 0.606455 255 0 0 
1.47207 0.0974684 0.677493 255 0 0 
1.41868 0.142649 0.662431 255 0 0 
1.45873 0.155028 0.659592 255 0 0 
1.48153 0.0968463 0.676265 255 0 0 
1.47877 0.0658377 0.629388 255 0 0 
1.47702 0.0901633 0.673892 255 0 0 
1.48419 0.0820043 0.666065 255 0 0 
1.40779 0.148133 0.661285 255 0 0 
1.48641 0.0810404 0.639218 255 0 0 
1.40725 0.150063 0.661499 255 0 0 
1.48194 0.0778995 0.662002 255 0 0 
1.47661 0.0708277 0.635463 255 0 0 
1.42968 0.132949 0.661652 255 0 0 
1.45967 0.137981 0.590712 255 0 0 
1.46295 0.108293 0.678969 255 0 0 
1.48017 0.0687162 0.632585 255 0 0 
1.43001 0.135539 0.663251 255 0 0 
1.48157 0.0800484 0.641016 255 0 0 
1.48718 0.0866262 0.669862 255 0 0 
1.5205 0.119309 0.611372 255 0 0 
1.47321 0.0675876 0.632101 255 0 0 
1.52796 0.0943525 0.60207 255 0 0 
1.45445 0.140426 0.647407 255 0 0 
1.48159 0.0835231 0.646339 255 0 0 
1.4781 0.0623586 0.614361 255 0 0 
1.44058 0.104174 0.643427 255 0 0 
1.44604 0.111001 0.626823 255 0 0 
1.4567 0.130399 0.587333 255 0 0 
1.44453 0.102693 0.631714 255 0 0 
1.45845 0.136688 0.591632 255 0 0 
1.45566 0.127264 0.587951 255 0 0 
1.44455 0.117753 0.63629 255 0 0 
1.44643 0.119648 0.634913 255 0 0 
1.50398 0.0767528 0.60402 255 0 0 
1.45139 0.164791 0.64752 255 0 0 
1.44151 0.117159 0.646071 255 0 0 
1.45416 0.139659 0.648042 255 0 0 
1.43543 0.130799 0.662756 255 0 0 
1.48789 0.0692214 0.596666 255 0 0 
1.48872 0.0698828 0.595823 255 0 0 
1.48972 0.0700741 0.595872 255 0 0 
1.49058 0.070543 0.595487 255 0 0 
1.49157 0.0707497 0.595536 255 0 0 
1.49259 0.0709151 0.595669 255 0 0 
1.4936 0.070981 0.595825 255 0 0 
1.49463 0.0710119 0.596055 255 0 0 
1.49565 0.0711018 0.596203 255 0 0 
1.49669 0.0711644 0.596422 255 0 0 
1.49768 0.0713092 0.596499 255 0 0 
1.49867 0.071509 0.596544 255 0 0 
1.49966 0.071697 0.596595 255 0 0 
1.50065 0.0718966 0.596638 255 0 0 
1.50163 0.0721158 0.596635 255 0 0 
1.50261 0.0723375 0.596659 255 0 0 
1.50358 0.0726372 0.596567 255 0 0 
1.50453 0.0729363 0.596498 255 0 0 
1.50548 0.0733138 0.596314 255 0 0 
1.5064 0.0737005 0.596148 255 0 0 
1.4727 0.0699579 0.635435 255 0 0 
1.48181 0.0658338 0.62815 255 0 0 
1.48998 0.0699917 0.627824 255 0 0 
1.5232 0.0922782 0.599061 255 0 0 
1.47136 0.10406 0.678841 255 0 0 
1.48726 0.0686862 0.628484 255 0 0 
1.47907 0.0902939 0.6742 255 0 0 
1.45921 0.102884 0.677468 255 0 0 
1.47942 0.0930458 0.675546 255 0 0 
1.46701 0.104881 0.679063 255 0 0 
1.47481 0.0631656 0.602631 255 0 0 
1.51522 0.0853679 0.586039 255 0 0 
1.51621 0.0855075 0.586122 255 0 0 
1.51723 0.0856477 0.586234 255 0 0 
1.51822 0.0858336 0.586284 255 0 0 
1.51921 0.0860223 0.58633 255 0 0 
1.52022 0.0861612 0.586445 255 0 0 
1.52121 0.0862968 0.586532 255 0 0 
1.52225 0.0864016 0.586701 255 0 0 
1.52324 0.0865307 0.586794 255 0 0 
1.52423 0.0866935 0.586862 255 0 0 
1.52524 0.0868067 0.586993 255 0 0 
1.52628 0.0868878 0.587184 255 0 0 
1.52726 0.0870093 0.587276 255 0 0 
1.52828 0.0871511 0.58739 255 0 0 
1.52926 0.0873652 0.587422 255 0 0 
1.53021 0.0876579 0.587328 255 0 0 
1.53116 0.0879829 0.587209 255 0 0 
1.52264 0.0999732 0.611087 255 0 0 
1.53293 0.0890333 0.586522 255 0 0 
1.53383 0.0894168 0.586373 255 0 0 
1.44092 0.103162 0.642397 255 0 0 
1.39787 0.158525 0.6607 255 0 0 
1.49112 0.086478 0.663385 255 0 0 
1.468 0.105057 0.679114 255 0 0 
1.45273 0.124207 0.631848 255 0 0 
1.47718 0.0727761 0.637527 255 0 0 
1.47907 0.077128 0.6621 255 0 0 
1.47808 0.0769905 0.662048 255 0 0 
1.49203 0.0869109 0.663183 255 0 0 
1.48194 0.087052 0.672143 255 0 0 
1.41272 0.138575 0.641375 255 0 0 
1.48465 0.0842383 0.667757 255 0 0 
1.42452 0.136358 0.661471 255 0 0 
1.47088 0.105837 0.678979 255 0 0 
1.45969 0.155284 0.659514 255 0 0 
1.40967 0.144985 0.660534 255 0 0 
1.52104 0.120939 0.611839 255 0 0 
1.4727 0.0651577 0.628625 255 0 0 
1.52707 0.0986346 0.609518 255 0 0 
1.40884 0.148137 0.661504 255 0 0 
1.47581 0.0697948 0.634376 255 0 0 
1.47312 0.0810595 0.64389 255 0 0 
1.48714 0.069339 0.629736 255 0 0 
1.48108 0.0820731 0.642783 255 0 0 
1.48971 0.0835018 0.660286 255 0 0 
1.48365 0.0885808 0.672983 255 0 0 
1.52424 0.0923292 0.599275 255 0 0 
1.462 0.108029 0.678921 255 0 0 
1.49983 0.0616181 0.589224 255 0 0 
1.52058 0.103943 0.612593 255 0 0 
1.48093 0.0827177 0.668423 255 0 0 
1.47998 0.0823778 0.66854 255 0 0 
1.49386 0.0704979 0.624311 255 0 0 
1.48094 0.0698518 0.63355 255 0 0 
1.47995 0.0696615 0.633513 255 0 0 
1.45323 0.155149 0.644258 255 0 0 
1.44193 0.096699 0.621237 255 0 0 
1.44107 0.111058 0.651229 255 0 0 
1.45132 0.163051 0.649035 255 0 0 
1.45161 0.17543 0.648159 255 0 0 
1.44266 0.12027 0.643563 255 0 0 
1.45323 0.140928 0.652733 255 0 0 
1.39873 0.16314 0.639965 255 0 0 
1.44495 0.0990036 0.632976 255 0 0 
1.44484 0.116753 0.635247 255 0 0 
1.44487 0.108821 0.624743 255 0 0 
1.47495 0.155901 0.579365 255 0 0 
1.45246 0.175942 0.641877 255 0 0 
1.45189 0.16011 0.645695 255 0 0 
1.44435 0.112733 0.61573 255 0 0 
1.45555 0.150763 0.642656 255 0 0 
1.44381 0.104395 0.598153 255 0 0 
1.47487 0.15679 0.580486 255 0 0 
1.4766 0.0662972 0.630326 255 0 0 
1.48808 0.0741964 0.634756 255 0 0 
1.47974 0.0917433 0.674928 255 0 0 
1.47532 0.0804513 0.64305 255 0 0 
1.49365 0.0710679 0.597634 255 0 0 
1.51973 0.107122 0.613231 255 0 0 
1.49558 0.0715907 0.597659 255 0 0 
1.49659 0.0717372 0.597791 255 0 0 
1.52075 0.107224 0.613264 255 0 0 
1.49853 0.0722217 0.597745 255 0 0 
1.49951 0.0724631 0.597727 255 0 0 
1.50048 0.0726794 0.597765 255 0 0 
1.50147 0.0729036 0.597795 255 0 0 
1.50243 0.073184 0.597714 255 0 0 
1.5034 0.0734647 0.597667 255 0 0 
1.50435 0.0737626 0.597601 255 0 0 
1.50529 0.0740973 0.59748 255 0 0 
1.50624 0.0744599 0.597338 255 0 0 
1.47475 0.0865894 0.671088 255 0 0 
1.47189 0.0689447 0.634313 255 0 0 
1.48277 0.066122 0.628101 255 0 0 
1.47408 0.0812937 0.643886 255 0 0 
1.52719 0.0929014 0.599358 255 0 0 
1.47043 0.103727 0.678917 255 0 0 
1.52033 0.0965025 0.608099 255 0 0 
1.48093 0.0781208 0.663418 255 0 0 
1.45817 0.102875 0.677262 255 0 0 
1.48255 0.0801907 0.665537 255 0 0 
1.45919 0.145793 0.660038 255 0 0 
1.51504 0.0862233 0.58715 255 0 0 
1.51604 0.0863704 0.587227 255 0 0 
1.51705 0.0864944 0.587351 255 0 0 
1.51803 0.0866603 0.587412 255 0 0 
1.51903 0.0868728 0.587445 255 0 0 
1.52002 0.0870465 0.587502 255 0 0 
1.52103 0.0871595 0.587636 255 0 0 
1.52204 0.0872746 0.587771 255 0 0 
1.52305 0.0873744 0.587911 255 0 0 
1.52407 0.0874844 0.588048 255 0 0 
1.52508 0.0875978 0.58818 255 0 0 
1.52609 0.0877014 0.588321 255 0 0 
1.52711 0.0877997 0.588465 255 0 0 
1.52809 0.0879882 0.588474 255 0 0 
1.52907 0.0882265 0.588489 255 0 0 
1.53003 0.0884896 0.58845 255 0 0 
1.531 0.0887742 0.58836 255 0 0 
1.51965 0.0947915 0.605662 255 0 0 
1.45533 0.1265 0.588556 255 0 0 
1.53371 0.0901432 0.587603 255 0 0 
1.53458 0.0905505 0.58742 255 0 0 
1.44723 0.118451 0.632164 255 0 0 
1.4441 0.100181 0.633794 255 0 0 
1.44213 0.100444 0.606867 255 0 0 
1.47641 0.0967448 0.677167 255 0 0 
1.44761 0.114795 0.627607 255 0 0 
1.44281 0.119324 0.642441 255 0 0 
1.48136 0.0850926 0.670067 255 0 0 
1.48039 0.0848497 0.67009 255 0 0 
1.49378 0.0710466 0.625668 255 0 0 
1.47803 0.0902483 0.674034 255 0 0 
1.4584 0.105919 0.678294 255 0 0 
1.48182 0.0789571 0.640197 255 0 0 
1.48859 0.0894044 0.671387 255 0 0 
1.48206 0.098731 0.676524 255 0 0 
1.41077 0.144796 0.660911 255 0 0 
1.48205 0.0908286 0.674356 255 0 0 
1.46829 0.0660644 0.628602 255 0 0 
1.47374 0.0651915 0.628839 255 0 0 
1.48782 0.0830035 0.660311 255 0 0 
1.46742 0.103337 0.678722 255 0 0 
1.48085 0.0655713 0.62819 255 0 0 
1.46842 0.107277 0.679075 255 0 0 
1.50024 0.0570901 0.591876 255 0 0 
1.52315 0.0978207 0.609422 255 0 0 
1.49157 0.0842753 0.659967 255 0 0 
1.47585 0.0782497 0.641467 255 0 0 
1.52775 0.107915 0.612293 255 0 0 
1.46597 0.104853 0.678949 255 0 0 
1.52503 0.106637 0.612974 255 0 0 
1.52214 0.0977426 0.609257 255 0 0 
1.47577 0.0653842 0.629116 255 0 0 
1.46832 0.0710283 0.63722 255 0 0 
1.49378 0.0755267 0.630851 255 0 0 
1.4848 0.0708485 0.633456 255 0 0 
1.51459 0.0940665 0.603223 255 0 0 
1.44219 0.108061 0.636493 255 0 0 
1.4423 0.105591 0.613898 255 0 0 
1.44446 0.101824 0.632445 255 0 0 
1.44586 0.11749 0.613791 255 0 0 
1.47312 0.154824 0.581926 255 0 0 
1.45196 0.155652 0.647604 255 0 0 
1.451 0.191486 0.635838 255 0 0 
1.47793 0.160018 0.578131 255 0 0 
1.46464 0.082295 0.652452 255 0 0 
1.45021 0.122531 0.632937 255 0 0 
1.44952 0.193888 0.641435 255 0 0 
1.45294 0.1437 0.652232 255 0 0 
1.45462 0.161759 0.640766 255 0 0 
1.47593 0.158155 0.579466 255 0 0 
1.45212 0.177842 0.642137 255 0 0 
1.45646 0.167245 0.63826 255 0 0 
1.47539 0.157481 0.579971 255 0 0 
1.44409 0.105184 0.597535 255 0 0 
1.44263 0.108161 0.611815 255 0 0 
1.48006 0.16183 0.576853 255 0 0 
1.5074 0.0451817 0.586878 255 0 0 
1.51611 0.109127 0.614435 255 0 0 
1.51694 0.109797 0.613954 255 0 0 
1.43464 0.129802 0.661611 255 0 0 
1.51766 0.110637 0.613336 255 0 0 
1.51857 0.111282 0.612872 255 0 0 
1.51955 0.111533 0.61276 255 0 0 
1.52057 0.111549 0.61292 255 0 0 
1.52173 0.107407 0.61334 255 0 0 
1.52269 0.10767 0.613338 255 0 0 
1.50037 0.0733498 0.599033 255 0 0 
1.50133 0.0736085 0.599004 255 0 0 
1.50227 0.0739398 0.598888 255 0 0 
1.50324 0.0742339 0.598836 255 0 0 
1.50418 0.074566 0.59872 255 0 0 
1.50513 0.0749038 0.598599 255 0 0 
1.50606 0.075273 0.598452 255 0 0 
1.52158 0.111729 0.612964 255 0 0 
1.48418 0.0946176 0.675104 255 0 0 
1.44293 0.0970046 0.640147 255 0 0 
1.4575 0.140823 0.660157 255 0 0 
1.52624 0.0926171 0.599404 255 0 0 
1.46944 0.103538 0.678896 255 0 0 
1.48875 0.0832594 0.660316 255 0 0 
1.42421 0.137677 0.66213 255 0 0 
1.43104 0.135537 0.663456 255 0 0 
1.43939 0.127588 0.662625 255 0 0 
1.5225 0.112073 0.61286 255 0 0 
1.51486 0.0870301 0.588291 255 0 0 
1.51585 0.0871794 0.588366 255 0 0 
1.51686 0.0873111 0.588487 255 0 0 
1.51788 0.0874549 0.588603 255 0 0 
1.51887 0.0876348 0.588657 255 0 0 
1.51988 0.0877515 0.58879 255 0 0 
1.5209 0.0878952 0.588906 255 0 0 
1.52191 0.0880039 0.589043 255 0 0 
1.52293 0.088102 0.589189 255 0 0 
1.52394 0.0881861 0.589337 255 0 0 
1.52495 0.0882588 0.589493 255 0 0 
1.52596 0.0883919 0.589616 255 0 0 
1.52696 0.0885272 0.58969 255 0 0 
1.52795 0.0886823 0.589756 255 0 0 
1.52892 0.0889478 0.589718 255 0 0 
1.52987 0.0892418 0.589661 255 0 0 
1.53083 0.0895424 0.58956 255 0 0 
1.52346 0.112323 0.612777 255 0 0 
1.47114 0.0806508 0.64385 255 0 0 
1.51773 0.113872 0.61402 255 0 0 
1.53434 0.0915538 0.588347 255 0 0 
1.51846 0.115329 0.612823 255 0 0 
1.48552 0.0721439 0.634267 255 0 0 
1.47598 0.0901302 0.67371 255 0 0 
1.47903 0.0820692 0.668615 255 0 0 
1.45326 0.141805 0.653952 255 0 0 
1.52257 0.104224 0.612781 255 0 0 
1.48361 0.0797262 0.639897 255 0 0 
1.47943 0.0845856 0.670142 255 0 0 
1.49143 0.0849964 0.661095 255 0 0 
1.4783 0.080793 0.667783 255 0 0 
1.47714 0.0820294 0.643978 255 0 0 
1.4873 0.0814818 0.638965 255 0 0 
1.48003 0.0946896 0.676065 255 0 0 
1.48578 0.0835046 0.665009 255 0 0 
1.48112 0.0983875 0.676645 255 0 0 
1.47622 0.0680231 0.632366 255 0 0 
1.46751 0.0700355 0.636086 255 0 0 
1.4191 0.141087 0.66196 255 0 0 
1.51926 0.116093 0.61223 255 0 0 
1.46132 0.149315 0.659362 255 0 0 
1.4609 0.104388 0.678304 255 0 0 
1.47293 0.063402 0.624816 255 0 0 
1.48554 0.0892812 0.672735 255 0 0 
1.49346 0.0766212 0.631644 255 0 0 
1.52112 0.0976456 0.609114 255 0 0 
1.48461 0.0668855 0.627763 255 0 0 
1.52008 0.0921848 0.598397 255 0 0 
1.47185 0.0819472 0.644674 255 0 0 
1.47166 0.0948153 0.676077 255 0 0 
1.48673 0.0796896 0.638656 255 0 0 
1.52688 0.107414 0.612597 255 0 0 
1.52596 0.106984 0.612821 255 0 0 
1.45821 0.145624 0.660025 255 0 0 
1.52188 0.0987817 0.610136 255 0 0 
1.52289 0.0988905 0.610265 255 0 0 
1.48739 0.0680401 0.627226 255 0 0 
1.43399 0.132326 0.663022 255 0 0 
1.45845 0.140993 0.660272 255 0 0 
1.44388 0.100733 0.601165 255 0 0 
1.44666 0.114274 0.629856 255 0 0 
1.45449 0.147515 0.645172 255 0 0 
1.47715 0.0630276 0.608856 255 0 0 
1.47656 0.158836 0.579012 255 0 0 
1.4772 0.159431 0.578542 255 0 0 
1.44233 0.102861 0.616178 255 0 0 
1.47858 0.160642 0.577675 255 0 0 
1.39524 0.167764 0.652723 255 0 0 
1.44216 0.10113 0.617591 255 0 0 
1.44836 0.124171 0.637105 255 0 0 
1.48785 0.0819154 0.653941 255 0 0 
1.44167 0.114455 0.640637 255 0 0 
1.44856 0.110527 0.593567 255 0 0 
1.44804 0.109844 0.594077 255 0 0 
1.445 0.106618 0.596444 255 0 0 
1.44554 0.107303 0.59593 255 0 0 
1.44448 0.105918 0.596968 255 0 0 
1.4779 0.0627717 0.609974 255 0 0 
1.48082 0.162399 0.576452 255 0 0 
1.44238 0.0968684 0.602326 255 0 0 
1.4816 0.0798466 0.665654 255 0 0 
1.44395 0.0998816 0.598131 255 0 0 
1.47422 0.0765332 0.640844 255 0 0 
1.41427 0.137332 0.642783 255 0 0 
1.44754 0.116571 0.629938 255 0 0 
1.48791 0.0878727 0.670754 255 0 0 
1.47351 0.0913471 0.674045 255 0 0 
1.48581 0.0881334 0.671961 255 0 0 
1.47775 0.0955556 0.676639 255 0 0 
1.52365 0.107928 0.613303 255 0 0 
1.50127 0.07411 0.600455 255 0 0 
1.50217 0.0745338 0.600244 255 0 0 
1.5031 0.0749108 0.600106 255 0 0 
1.50403 0.0752928 0.599915 255 0 0 
1.50496 0.0757011 0.599716 255 0 0 
1.5059 0.0761212 0.599509 255 0 0 
1.44871 0.115743 0.596759 255 0 0 
1.48294 0.0872349 0.672189 255 0 0 
1.45722 0.134547 0.591437 255 0 0 
1.46394 0.100571 0.676779 255 0 0 
1.4754 0.0924745 0.675208 255 0 0 
1.46536 0.103209 0.678448 255 0 0 
1.48574 0.0661539 0.624869 255 0 0 
1.42531 0.137489 0.662514 255 0 0 
1.4825 0.0674377 0.630581 255 0 0 
1.52459 0.108275 0.613208 255 0 0 
1.47965 0.0961604 0.676502 255 0 0 
1.51469 0.0878337 0.589477 255 0 0 
1.51572 0.0879329 0.589622 255 0 0 
1.51674 0.0880244 0.58977 255 0 0 
1.51773 0.0881782 0.589837 255 0 0 
1.51874 0.0882976 0.589966 255 0 0 
1.51975 0.0884061 0.590105 255 0 0 
1.52076 0.0885104 0.590243 255 0 0 
1.52178 0.0885741 0.5904 255 0 0 
1.52282 0.088662 0.590598 255 0 0 
1.52383 0.0887581 0.59074 255 0 0 
1.52485 0.0888678 0.590876 255 0 0 
1.52586 0.0889713 0.591016 255 0 0 
1.52687 0.0890717 0.591153 255 0 0 
1.52787 0.089216 0.591221 255 0 0 
1.52883 0.0894785 0.591184 255 0 0 
1.52977 0.0898376 0.591048 255 0 0 
1.53069 0.0902058 0.590905 255 0 0 
1.48247 0.0971946 0.676137 255 0 0 
1.46777 0.077586 0.642224 255 0 0 
1.51929 0.100873 0.611396 255 0 0 
1.5341 0.0926513 0.589152 255 0 0 
1.47072 0.0695564 0.635368 255 0 0 
1.46546 0.0698973 0.635746 255 0 0 
1.44243 0.0960014 0.601169 255 0 0 
1.48656 0.0642361 0.611217 255 0 0 
1.47907 0.0640703 0.62541 255 0 0 
1.45634 0.159876 0.658644 255 0 0 
1.46626 0.148676 0.586301 255 0 0 
1.42893 0.13563 0.662994 255 0 0 
1.48177 0.0790883 0.664565 255 0 0 
1.52101 0.0931366 0.601707 255 0 0 
1.47466 0.0912456 0.674293 255 0 0 
1.47462 0.0785823 0.66535 255 0 0 
1.51659 0.103289 0.612343 255 0 0 
1.48768 0.0889115 0.671643 255 0 0 
1.47924 0.0976957 0.676886 255 0 0 
1.47614 0.0631664 0.623666 255 0 0 
1.43186 0.132497 0.662474 255 0 0 
1.52309 0.0931417 0.60217 255 0 0 
1.45111 0.186237 0.644503 255 0 0 
1.46761 0.150826 0.58466 255 0 0 
1.4696 0.0988699 0.677608 255 0 0 
1.52204 0.0931149 0.601948 255 0 0 
1.45732 0.152564 0.659533 255 0 0 
1.48592 0.07037 0.632276 255 0 0 
1.48954 0.072126 0.631355 255 0 0 
1.47513 0.0630898 0.623527 255 0 0 
1.5138 0.0927447 0.600349 255 0 0 
1.40119 0.153386 0.6613 255 0 0 
1.43075 0.132746 0.662051 255 0 0 
1.44126 0.0910594 0.605103 255 0 0 
1.41399 0.144502 0.66183 255 0 0 
1.51719 0.104942 0.61283 255 0 0 
1.51923 0.105152 0.613057 255 0 0 
1.48071 0.0708428 0.634448 255 0 0 
1.52086 0.098673 0.610012 255 0 0 
1.52914 0.098488 0.608166 255 0 0 
1.52542 0.0969947 0.608804 255 0 0 
1.52444 0.0968218 0.60874 255 0 0 
1.47749 0.104254 0.67806 255 0 0 
1.47552 0.0877491 0.672056 255 0 0 
1.44372 0.103525 0.598859 255 0 0 
1.44374 0.102604 0.599614 255 0 0 
1.44351 0.0999979 0.601728 255 0 0 
1.44304 0.0992772 0.602276 255 0 0 
1.44262 0.0985526 0.602833 255 0 0 
1.44227 0.0978079 0.603407 255 0 0 
1.44219 0.0969376 0.604112 255 0 0 
1.44617 0.107935 0.595471 255 0 0 
1.44686 0.108549 0.595025 255 0 0 
1.44753 0.109159 0.594589 255 0 0 
1.44945 0.111957 0.592475 255 0 0 
1.44977 0.112728 0.591876 255 0 0 
1.44907 0.11121 0.593055 255 0 0 
1.48168 0.0773831 0.659055 255 0 0 
1.44918 0.126472 0.639115 255 0 0 
1.45311 0.143642 0.650332 255 0 0 
1.44492 0.11521 0.61369 255 0 0 
1.49038 0.0659657 0.615005 255 0 0 
1.44245 0.107331 0.612479 255 0 0 
1.44642 0.115254 0.630935 255 0 0 
1.44215 0.0951683 0.603696 255 0 0 
1.52553 0.108618 0.613089 255 0 0 
1.47173 0.0783147 0.642409 255 0 0 
1.48675 0.0660066 0.623307 255 0 0 
1.48516 0.0691814 0.631378 255 0 0 
1.53086 0.0649689 0.574379 255 0 0 
1.48699 0.087461 0.670936 255 0 0 
1.45561 0.137654 0.658873 255 0 0 
1.46712 0.100366 0.677637 255 0 0 
1.48198 0.159559 0.562077 255 0 0 
1.45134 0.134866 0.570169 255 0 0 
1.46966 0.15007 0.579872 255 0 0 
1.50227 0.0749201 0.60196 255 0 0 
1.50305 0.0753446 0.601643 255 0 0 
1.50395 0.0758598 0.601283 255 0 0 
1.52481 0.0617556 0.576372 255 0 0 
1.50572 0.0768485 0.600743 255 0 0 
1.52643 0.109124 0.612829 255 0 0 
1.48357 0.0671268 0.629217 255 0 0 
1.46928 0.0665316 0.63033 255 0 0 
1.48616 0.0818359 0.662931 255 0 0 
1.46819 0.100324 0.677867 255 0 0 
1.47641 0.0925619 0.675361 255 0 0 
1.46433 0.103189 0.678246 255 0 0 
1.46458 0.0690434 0.634451 255 0 0 
1.42639 0.137393 0.662807 255 0 0 
1.47447 0.0711853 0.636549 255 0 0 
1.45174 0.159312 0.646379 255 0 0 
1.47833 0.0890472 0.67331 255 0 0 
1.51556 0.0886336 0.590868 255 0 0 
1.51661 0.0886942 0.591074 255 0 0 
1.51762 0.0887803 0.591222 255 0 0 
1.51863 0.0888608 0.591372 255 0 0 
1.51967 0.0889442 0.591571 255 0 0 
1.52069 0.0890435 0.59171 255 0 0 
1.5217 0.0891309 0.591858 255 0 0 
1.52271 0.0892372 0.591996 255 0 0 
1.52372 0.0893096 0.592146 255 0 0 
1.52476 0.0893978 0.592347 255 0 0 
1.52578 0.0894764 0.592494 255 0 0 
1.52679 0.0895603 0.59264 255 0 0 
1.52779 0.0897045 0.592706 255 0 0 
1.52877 0.0899517 0.592728 255 0 0 
1.52968 0.0903688 0.592515 255 0 0 
1.53059 0.0907833 0.592304 255 0 0 
1.5315 0.0912165 0.592079 255 0 0 
1.43705 0.132489 0.663496 255 0 0 
1.48013 0.0858957 0.670953 255 0 0 
1.47445 0.0793916 0.666421 255 0 0 
1.53471 0.0941761 0.589769 255 0 0 
1.44633 0.118224 0.611347 255 0 0 
1.49065 0.0838466 0.660168 255 0 0 
1.44426 0.116099 0.635734 255 0 0 
1.52869 0.0631935 0.575647 255 0 0 
1.47046 0.0792452 0.643148 255 0 0 
1.48624 0.0811655 0.661748 255 0 0 
1.48544 0.0803635 0.662331 255 0 0 
1.48095 0.0740919 0.637079 255 0 0 
1.44227 0.0942856 0.600697 255 0 0 
1.48694 0.0820186 0.659142 255 0 0 
1.47569 0.0785392 0.665616 255 0 0 
1.42489 0.13904 0.662986 255 0 0 
1.4835 0.0805986 0.665359 255 0 0 
1.48019 0.098038 0.67679 255 0 0 
1.52733 0.109465 0.612597 255 0 0 
1.51754 0.099517 0.610371 255 0 0 
1.52363 0.0957708 0.607628 255 0 0 
1.5221 0.0927018 0.600389 255 0 0 
1.46916 0.0802804 0.64377 255 0 0 
1.41925 0.134124 0.646597 255 0 0 
1.41156 0.139588 0.642068 255 0 0 
1.4405 0.127333 0.663098 255 0 0 
1.52883 0.0950972 0.603563 255 0 0 
1.4672 0.0664338 0.629907 255 0 0 
1.45143 0.187837 0.639165 255 0 0 
1.41972 0.14263 0.662674 255 0 0 
1.48785 0.0751234 0.635707 255 0 0 
1.47943 0.0804508 0.642059 255 0 0 
1.47541 0.0840166 0.669828 255 0 0 
1.47806 0.0818146 0.66864 255 0 0 
1.47779 0.0701559 0.634467 255 0 0 
1.47878 0.0915008 0.674919 255 0 0 
1.43828 0.127844 0.662175 255 0 0 
1.51984 0.0985573 0.609895 255 0 0 
1.49057 0.0719173 0.629873 255 0 0 
1.52823 0.0980131 0.608433 255 0 0 
1.44439 0.120464 0.639737 255 0 0 
1.47745 0.100588 0.677653 255 0 0 
1.47134 0.0666991 0.630646 255 0 0 
1.48379 0.0659522 0.626557 255 0 0 
1.48562 0.0832432 0.648854 255 0 0 
1.44536 0.124501 0.642247 255 0 0 
1.44427 0.1111 0.609517 255 0 0 
1.44476 0.111798 0.609004 255 0 0 
1.44504 0.112576 0.608399 255 0 0 
1.44553 0.114174 0.60714 255 0 0 
1.44587 0.114947 0.606526 255 0 0 
1.46658 0.149996 0.56292 255 0 0 
1.44533 0.113353 0.607794 255 0 0 
1.44039 0.116695 0.652137 255 0 0 
1.44173 0.104665 0.637369 255 0 0 
1.4515 0.173689 0.647677 255 0 0 
1.47931 0.161241 0.577261 255 0 0 
1.48242 0.163513 0.575688 255 0 0 
1.44134 0.113693 0.641246 255 0 0 
1.52957 0.0650593 0.572158 255 0 0 
1.45517 0.133939 0.645317 255 0 0 
1.4443 0.121374 0.640884 255 0 0 
1.4444 0.109853 0.631415 255 0 0 
1.4429 0.0998408 0.624393 255 0 0 
1.44079 0.0903161 0.607536 255 0 0 
1.4578 0.104257 0.677831 255 0 0 
1.4047 0.151745 0.661487 255 0 0 
1.51386 0.0922545 0.598918 255 0 0 
1.48487 0.087794 0.672072 255 0 0 
1.48605 0.0871437 0.671031 255 0 0 
1.48512 0.0867879 0.671164 255 0 0 
1.52362 0.100152 0.611136 255 0 0 
1.51758 0.0947957 0.60519 255 0 0 
1.52705 0.102801 0.611284 255 0 0 
1.48168 0.0710647 0.634451 255 0 0 
1.4689 0.0684663 0.6341 255 0 0 
1.47694 0.156922 0.574952 255 0 0 
1.47851 0.158064 0.574171 255 0 0 
1.4441 0.107394 0.622026 255 0 0 
1.52458 0.100416 0.611091 255 0 0 
1.47591 0.064669 0.627942 255 0 0 
1.4218 0.142712 0.662956 255 0 0 
1.45028 0.114323 0.590611 255 0 0 
1.47285 0.0691751 0.634299 255 0 0 
1.47676 0.0953633 0.676625 255 0 0 
1.48132 0.0810532 0.641898 255 0 0 
1.47746 0.0926207 0.675484 255 0 0 
1.46329 0.103167 0.678064 255 0 0 
1.48214 0.0691096 0.632654 255 0 0 
1.43304 0.135788 0.663546 255 0 0 
1.47546 0.0714002 0.636568 255 0 0 
1.47653 0.100173 0.677804 255 0 0 
1.4876 0.0668495 0.62461 255 0 0 
1.52822 0.109965 0.612319 255 0 0 
1.51647 0.0893253 0.592398 255 0 0 
1.51749 0.0894354 0.592531 255 0 0 
1.51852 0.0894755 0.592748 255 0 0 
1.51957 0.0895515 0.592951 255 0 0 
1.52058 0.089653 0.593089 255 0 0 
1.5216 0.0897497 0.593232 255 0 0 
1.52263 0.0898086 0.593445 255 0 0 
1.52365 0.0898742 0.593598 255 0 0 
1.52465 0.0899626 0.593744 255 0 0 
1.52567 0.0900569 0.593884 255 0 0 
1.5267 0.0901356 0.594084 255 0 0 
1.5277 0.0902818 0.594151 255 0 0 
1.52867 0.0905407 0.594114 255 0 0 
1.52959 0.0909208 0.59392 255 0 0 
1.53049 0.0913429 0.593752 255 0 0 
1.47375 0.0948694 0.676459 255 0 0 
1.52612 0.0935269 0.602489 255 0 0 
1.51768 0.0942075 0.603812 255 0 0 
1.52681 0.0954212 0.606741 255 0 0 
1.48169 0.0664526 0.629458 255 0 0 
1.52617 0.0930769 0.600946 255 0 0 
1.52851 0.105047 0.611366 255 0 0 
1.4529 0.144603 0.651432 255 0 0 
1.44403 0.101672 0.596676 255 0 0 
1.47076 0.0780674 0.642417 255 0 0 
1.48463 0.0797295 0.662712 255 0 0 
1.46934 0.0754309 0.640833 255 0 0 
1.48237 0.0895508 0.673697 255 0 0 
1.46249 0.106214 0.678867 255 0 0 
1.47274 0.0947827 0.676311 255 0 0 
1.4658 0.0682336 0.633585 255 0 0 
1.4406 0.0912176 0.610529 255 0 0 
1.46848 0.0789108 0.643009 255 0 0 
1.46351 0.106312 0.678952 255 0 0 
1.43488 0.128789 0.660665 255 0 0 
1.43602 0.128447 0.66119 255 0 0 
1.5252 0.092847 0.600972 255 0 0 
1.45341 0.164887 0.641781 255 0 0 
1.43577 0.129555 0.662039 255 0 0 
1.52418 0.0927445 0.600836 255 0 0 
1.4845 0.06748 0.629084 255 0 0 
1.48675 0.0884928 0.671823 255 0 0 
1.46746 0.107015 0.679137 255 0 0 
1.47997 0.0778453 0.663462 255 0 0 
1.518 0.0924967 0.59965 255 0 0 
1.48435 0.0856051 0.670207 255 0 0 
1.42707 0.139165 0.663303 255 0 0 
1.51598 0.0973409 0.608217 255 0 0 
1.44213 0.094312 0.602527 255 0 0 
1.48834 0.08539 0.663751 255 0 0 
1.46933 0.0711379 0.637345 255 0 0 
1.46667 0.0690742 0.634897 255 0 0 
1.44552 0.110334 0.625458 255 0 0 
1.51883 0.0984669 0.609745 255 0 0 
1.45599 0.183351 0.633922 255 0 0 
1.45362 0.124711 0.631517 255 0 0 
1.4875 0.0674196 0.625954 255 0 0 
1.48658 0.0670466 0.626095 255 0 0 
1.48565 0.0666831 0.626231 255 0 0 
1.48471 0.0663131 0.626424 255 0 0 
1.47702 0.0641908 0.626743 255 0 0 
1.45636 0.0832573 0.64738 255 0 0 
1.4918 0.0678032 0.603704 255 0 0 
1.44397 0.104694 0.63189 255 0 0 
1.44096 0.11023 0.649965 255 0 0 
1.44075 0.112103 0.648335 255 0 0 
1.44332 0.0995909 0.636115 255 0 0 
1.44756 0.115741 0.624955 255 0 0 
1.44867 0.120096 0.602543 255 0 0 
1.45474 0.178594 0.637956 255 0 0 
1.48164 0.162975 0.576075 255 0 0 
1.45423 0.146757 0.64582 255 0 0 
1.4559 0.174577 0.637694 255 0 0 
1.45502 0.149103 0.64389 255 0 0 
1.44725 0.114923 0.629376 255 0 0 
1.44148 0.0927421 0.605615 255 0 0 
1.44205 0.0942946 0.604402 255 0 0 
1.4419 0.0934698 0.605057 255 0 0 
1.44124 0.0919213 0.606266 255 0 0 
1.44099 0.0911402 0.606877 255 0 0 
1.44051 0.0886226 0.608895 255 0 0 
1.44067 0.0894462 0.608237 255 0 0 
1.45311 0.146316 0.647998 255 0 0 
1.48599 0.0826906 0.663944 255 0 0 
1.48666 0.0837529 0.663106 255 0 0 
1.48753 0.0843842 0.662696 255 0 0 
1.48846 0.0847052 0.662588 255 0 0 
1.47681 0.0785132 0.641428 255 0 0 
1.47778 0.0787835 0.641381 255 0 0 
1.49149 0.0723393 0.629659 255 0 0 
1.4739 0.0900883 0.673317 255 0 0 
1.465 0.0761435 0.64108 255 0 0 
1.46451 0.0738498 0.639368 255 0 0 
1.39815 0.159712 0.640974 255 0 0 
1.4818 0.0815155 0.649447 255 0 0 
1.4412 0.109314 0.639157 255 0 0 
1.46556 0.0738862 0.639565 255 0 0 
1.52889 0.0995445 0.609031 255 0 0 
1.44859 0.117933 0.628922 255 0 0 
1.45091 0.124448 0.604768 255 0 0 
1.4757 0.0912643 0.67449 255 0 0 
1.4728 0.0902049 0.672994 255 0 0 
1.47133 0.0714636 0.637483 255 0 0 
1.48041 0.0932481 0.675551 255 0 0 
1.47368 0.0866514 0.670799 255 0 0 
1.48116 0.0689169 0.632616 255 0 0 
1.46605 0.0761871 0.64126 255 0 0 
1.51806 0.0973947 0.608653 255 0 0 
1.47758 0.0710531 0.635466 255 0 0 
1.46657 0.0739726 0.639715 255 0 0 
1.46759 0.0740664 0.639862 255 0 0 
1.51635 0.090006 0.593694 255 0 0 
1.51738 0.0900336 0.593915 255 0 0 
1.51842 0.0900953 0.594123 255 0 0 
1.51944 0.090195 0.594263 255 0 0 
1.52045 0.0902987 0.594401 255 0 0 
1.52148 0.0903347 0.594616 255 0 0 
1.5225 0.0904171 0.594769 255 0 0 
1.52354 0.090451 0.59499 255 0 0 
1.52455 0.0905548 0.595126 255 0 0 
1.52556 0.0906678 0.595259 255 0 0 
1.52658 0.0907789 0.595392 255 0 0 
1.52758 0.0909213 0.595465 255 0 0 
1.52854 0.0911878 0.595424 255 0 0 
1.52945 0.0915694 0.595274 255 0 0 
1.53037 0.092026 0.594995 255 0 0 
1.4686 0.0741871 0.639966 255 0 0 
1.44155 0.120691 0.648878 255 0 0 
1.48339 0.0976146 0.675969 255 0 0 
1.44395 0.100799 0.597384 255 0 0 
1.47338 0.0799782 0.64308 255 0 0 
1.4724 0.0797097 0.643122 255 0 0 
1.44067 0.0876661 0.60782 255 0 0 
1.43999 0.104409 0.645089 255 0 0 
1.46526 0.0708103 0.636732 255 0 0 
1.51667 0.0941238 0.603664 255 0 0 
1.48374 0.0792103 0.662993 255 0 0 
1.48486 0.0653728 0.623487 255 0 0 
1.46706 0.0762843 0.641404 255 0 0 
1.44788 0.120827 0.634091 255 0 0 
1.47949 0.071611 0.635341 255 0 0 
1.4749 0.0779352 0.641546 255 0 0 
1.4879 0.0704314 0.630759 255 0 0 
1.52814 0.106441 0.611865 255 0 0 
1.47798 0.0774684 0.663387 255 0 0 
1.43148 0.133926 0.663057 255 0 0 
1.47339 0.0668025 0.631003 255 0 0 
1.46961 0.0743203 0.640051 255 0 0 
1.46807 0.0763904 0.641522 255 0 0 
1.46906 0.0765599 0.641591 255 0 0 
1.43685 0.129373 0.662413 255 0 0 
1.47858 0.0879835 0.67247 255 0 0 
1.48867 0.0716053 0.63167 255 0 0 
1.46398 0.108388 0.679047 255 0 0 
1.41107 0.140802 0.64282 255 0 0 
1.48582 0.0922812 0.673849 255 0 0 
1.48488 0.0918638 0.674011 255 0 0 
1.48046 0.0718649 0.635313 255 0 0 
1.45589 0.13918 0.65934 255 0 0 
1.47005 0.0767413 0.641636 255 0 0 
1.48875 0.0756096 0.635436 255 0 0 
1.47034 0.0755688 0.640906 255 0 0 
1.46713 0.0801017 0.643475 255 0 0 
1.51617 0.0963931 0.607229 255 0 0 
1.46497 0.10057 0.677007 255 0 0 
1.48985 0.0706343 0.629075 255 0 0 
1.45005 0.126152 0.63758 255 0 0 
1.52613 0.0983311 0.609619 255 0 0 
1.49113 0.0691353 0.625092 255 0 0 
1.48092 0.0785283 0.640416 255 0 0 
1.48506 0.0740801 0.636098 255 0 0 
1.42229 0.14088 0.662795 255 0 0 
1.527 0.0942582 0.603989 255 0 0 
1.51882 0.0936411 0.602652 255 0 0 
1.51743 0.0955735 0.606368 255 0 0 
1.48064 0.079644 0.641194 255 0 0 
1.44641 0.106971 0.594417 255 0 0 
1.44707 0.107588 0.593976 255 0 0 
1.44852 0.109687 0.59239 255 0 0 
1.449 0.110382 0.591865 255 0 0 
1.44817 0.108928 0.592978 255 0 0 
1.44772 0.108216 0.59352 255 0 0 
1.44071 0.0876094 0.609744 255 0 0 
1.45089 0.122774 0.60054 255 0 0 
1.44192 0.107251 0.637136 255 0 0 
1.4406 0.101461 0.643786 255 0 0 
1.44094 0.107643 0.64053 255 0 0 
1.45269 0.127288 0.604509 255 0 0 
1.44362 0.103082 0.625587 255 0 0 
1.45464 0.128409 0.596271 255 0 0 
1.45435 0.127621 0.596878 255 0 0 
1.45365 0.126107 0.59805 255 0 0 
1.44701 0.115904 0.63045 255 0 0 
1.45403 0.126858 0.597484 255 0 0 
1.45331 0.125354 0.598652 255 0 0 
1.47061 0.0745021 0.640101 255 0 0 
1.4422 0.128871 0.663949 255 0 0 
1.47497 0.0768854 0.661464 255 0 0 
1.48385 0.065497 0.625114 255 0 0 
1.48199 0.0645334 0.623684 255 0 0 
1.46061 0.139396 0.589638 255 0 0 
1.52952 0.0967641 0.606018 255 0 0 
1.49195 0.070188 0.6261 255 0 0 
1.48588 0.0651998 0.62193 255 0 0 
1.47105 0.0973721 0.677352 255 0 0 
1.47521 0.0889529 0.67277 255 0 0 
1.47159 0.0746804 0.640148 255 0 0 
1.47258 0.0748912 0.640154 255 0 0 
1.47354 0.0751429 0.640127 255 0 0 
1.4745 0.0754071 0.640087 255 0 0 
1.47546 0.0756707 0.640049 255 0 0 
1.52597 0.0944757 0.605504 255 0 0 
1.51805 0.0920174 0.598109 255 0 0 
1.48013 0.0817854 0.642844 255 0 0 
1.48006 0.0643002 0.625444 255 0 0 
1.46642 0.0787744 0.642684 255 0 0 
1.46452 0.106404 0.679074 255 0 0 
1.48135 0.0935797 0.675462 255 0 0 
1.48247 0.0804441 0.640816 255 0 0 
1.42744 0.137281 0.66313 255 0 0 
1.41033 0.140928 0.640765 255 0 0 
1.47642 0.0759507 0.639977 255 0 0 
1.44009 0.128942 0.663466 255 0 0 
1.51519 0.0906035 0.594837 255 0 0 
1.51621 0.0906638 0.594999 255 0 0 
1.51725 0.0906887 0.595222 255 0 0 
1.51829 0.0907733 0.595419 255 0 0 
1.51928 0.0908979 0.595496 255 0 0 
1.52032 0.0909909 0.595689 255 0 0 
1.52136 0.0910118 0.595913 255 0 0 
1.5224 0.0910363 0.596141 255 0 0 
1.5234 0.0910833 0.596305 255 0 0 
1.52442 0.0912028 0.596434 255 0 0 
1.52543 0.0913073 0.596571 255 0 0 
1.52645 0.0914359 0.596695 255 0 0 
1.52744 0.0916155 0.596746 255 0 0 
1.5284 0.0918959 0.596655 255 0 0 
1.52933 0.0922609 0.596515 255 0 0 
1.53026 0.0926747 0.596305 255 0 0 
1.53114 0.0931319 0.596066 255 0 0 
1.47738 0.0762154 0.63994 255 0 0 
1.47871 0.095819 0.676601 255 0 0 
1.47834 0.0765187 0.63988 255 0 0 
1.48519 0.0818764 0.664533 255 0 0 
1.52774 0.095808 0.606554 255 0 0 
1.47603 0.081732 0.643898 255 0 0 
1.47436 0.0839936 0.669627 255 0 0 
1.48057 0.0669659 0.63059 255 0 0 
1.45028 0.122984 0.60218 255 0 0 
1.48283 0.0787939 0.66319 255 0 0 
1.44226 0.0951447 0.601864 255 0 0 
1.52906 0.0936421 0.599078 255 0 0 
1.47702 0.10221 0.677958 255 0 0 
1.52733 0.0975765 0.608662 255 0 0 
1.46082 0.151153 0.659542 255 0 0 
1.51586 0.0928325 0.600777 255 0 0 
1.48499 0.0699808 0.632455 255 0 0 
1.48943 0.0676959 0.624183 255 0 0 
1.4746 0.0660367 0.630126 255 0 0 
1.47103 0.0769317 0.641669 255 0 0 
1.49075 0.0711208 0.62879 255 0 0 
1.47929 0.0767945 0.639815 255 0 0 
1.45209 0.184944 0.639845 255 0 0 
1.528 0.099054 0.609316 255 0 0 
1.48024 0.0771147 0.639733 255 0 0 
1.48169 0.088129 0.672987 255 0 0 
1.48118 0.0774039 0.639649 255 0 0 
1.40986 0.141465 0.641853 255 0 0 
1.49216 0.069054 0.623401 255 0 0 
1.4821 0.0778262 0.639445 255 0 0 
1.45528 0.185851 0.653287 255 0 0 
1.47201 0.0771343 0.64168 255 0 0 
1.47298 0.077385 0.64166 255 0 0 
1.51368 0.093354 0.601765 255 0 0 
1.47501 0.0815291 0.668247 255 0 0 
1.47394 0.081615 0.66802 255 0 0 
1.51906 0.0921042 0.598253 255 0 0 
1.47727 0.0890698 0.673094 255 0 0 
1.51779 0.0984495 0.609516 255 0 0 
1.52341 0.0967723 0.60855 255 0 0 
1.48217 0.0860846 0.671196 255 0 0 
1.49205 0.0695842 0.624817 255 0 0 
1.39854 0.155638 0.660658 255 0 0 
1.52301 0.0936297 0.603644 255 0 0 
1.52197 0.0936427 0.603407 255 0 0 
1.52096 0.0936042 0.603251 255 0 0 
1.51986 0.0936341 0.60289 255 0 0 
1.5195 0.095618 0.606811 255 0 0 
1.48775 0.0658736 0.621741 255 0 0 
1.46293 0.104564 0.678577 255 0 0 
1.45131 0.114831 0.58843 255 0 0 
1.45101 0.114054 0.589039 255 0 0 
1.45077 0.113146 0.58974 255 0 0 
1.44554 0.116482 0.633637 255 0 0 
1.44596 0.117473 0.61196 255 0 0 
1.47262 0.155863 0.584782 255 0 0 
1.44331 0.10144 0.625016 255 0 0 
1.44074 0.0996226 0.643421 255 0 0 
1.45508 0.130026 0.594948 255 0 0 
1.45486 0.129214 0.595608 255 0 0 
1.44528 0.115961 0.613132 255 0 0 
1.45629 0.133131 0.592509 255 0 0 
1.4567 0.133863 0.59195 255 0 0 
1.47637 0.0719748 0.58636 255 0 0 
1.45872 0.136608 0.589863 255 0 0 
1.44461 0.101717 0.630624 255 0 0 
1.4436 0.108403 0.632546 255 0 0 
1.44938 0.121557 0.603253 255 0 0 
1.46404 0.147507 0.562865 255 0 0 
1.46488 0.148055 0.562496 255 0 0 
1.48303 0.078221 0.63928 255 0 0 
1.52985 0.0947135 0.600167 255 0 0 
1.46954 0.0702594 0.636331 255 0 0 
1.52519 0.102056 0.611573 255 0 0 
1.52566 0.0959935 0.607881 255 0 0 
1.5155 0.0947544 0.60474 255 0 0 
1.4409 0.0866521 0.608667 255 0 0 
1.47929 0.0725137 0.636335 255 0 0 
1.51675 0.0984169 0.609306 255 0 0 
1.4725 0.0659896 0.62966 255 0 0 
1.47557 0.0999029 0.677896 255 0 0 
1.47301 0.0936282 0.675552 255 0 0 
1.4886 0.0667964 0.622901 255 0 0 
1.47395 0.0776567 0.641608 255 0 0 
1.52755 0.0966426 0.607665 255 0 0 
1.52724 0.106015 0.612106 255 0 0 
1.46418 0.0708157 0.636479 255 0 0 
1.48531 0.0859141 0.670117 255 0 0 
1.51981 0.114257 0.612222 255 0 0 
1.44787 0.12784 0.642903 255 0 0 
1.48101 0.0645747 0.625337 255 0 0 
1.48108 0.0905705 0.674376 255 0 0 
1.48231 0.0938612 0.675376 255 0 0 
1.51961 0.103688 0.612614 255 0 0 
1.51638 0.0955336 0.606157 255 0 0 
1.44042 0.0903907 0.611188 255 0 0 
1.48397 0.078557 0.639171 255 0 0 
1.51508 0.0912428 0.596205 255 0 0 
1.5161 0.0912781 0.596373 255 0 0 
1.51714 0.0913161 0.596589 255 0 0 
1.51816 0.0914277 0.596724 255 0 0 
1.51917 0.0915353 0.59686 255 0 0 
1.52021 0.0915873 0.597071 255 0 0 
1.52122 0.0916431 0.597231 255 0 0 
1.52227 0.0916769 0.597449 255 0 0 
1.5233 0.0917188 0.597667 255 0 0 
1.52432 0.0918002 0.597813 255 0 0 
1.52531 0.0919189 0.59789 255 0 0 
1.52632 0.0920867 0.597999 255 0 0 
1.5273 0.0922944 0.598035 255 0 0 
1.52826 0.0925977 0.597931 255 0 0 
1.5292 0.0929495 0.597799 255 0 0 
1.53011 0.093329 0.597649 255 0 0 
1.48491 0.0788631 0.639041 255 0 0 
1.48581 0.0792736 0.638849 255 0 0 
1.44461 0.113494 0.617004 255 0 0 
1.45439 0.0778662 0.547048 255 0 0 
1.45443 0.0773663 0.548241 255 0 0 
1.4553 0.0767349 0.548986 255 0 0 
1.45584 0.0760931 0.549674 255 0 0 
1.45633 0.0753818 0.550482 255 0 0 
1.45707 0.074911 0.551215 255 0 0 
1.45779 0.0744462 0.551807 255 0 0 
1.45855 0.0740084 0.552381 255 0 0 
1.45924 0.0735065 0.553026 255 0 0 
1.46001 0.0731086 0.553537 255 0 0 
1.46058 0.0724805 0.554276 255 0 0 
1.46128 0.0720066 0.554861 255 0 0 
1.46198 0.0715287 0.555444 255 0 0 
1.46269 0.0710576 0.556033 255 0 0 
1.44022 0.103039 0.648279 255 0 0 
1.44054 0.102096 0.649211 255 0 0 
1.44279 0.0994781 0.65203 255 0 0 
1.45105 0.0919516 0.660337 255 0 0 
1.45954 0.0888661 0.664639 255 0 0 
1.46437 0.0880606 0.666178 255 0 0 
1.47456 0.155248 0.578683 255 0 0 
1.50371 0.174092 0.580518 255 0 0 
1.47197 0.0993694 0.530625 255 0 0 
1.45871 0.140793 0.575866 255 0 0 
1.50013 0.173784 0.581026 255 0 0 
1.47456 0.152551 0.572966 255 0 0 
1.46135 0.0533621 0.574988 255 0 0 
1.45768 0.0904219 0.664767 255 0 0 
1.45864 0.0902445 0.665101 255 0 0 
1.47124 0.0822706 0.667018 255 0 0 
1.4539 0.0800358 0.547517 255 0 0 
1.45403 0.0790535 0.548593 255 0 0 
1.45466 0.0783814 0.549368 255 0 0 
1.45537 0.0779096 0.549954 255 0 0 
1.45603 0.077363 0.550608 255 0 0 
1.45654 0.0766157 0.551467 255 0 0 
1.457 0.0759402 0.55224 255 0 0 
1.45767 0.0754413 0.552841 255 0 0 
1.45843 0.0750219 0.553355 255 0 0 
1.45919 0.0745933 0.553924 255 0 0 
1.45984 0.0740523 0.554571 255 0 0 
1.46053 0.0735639 0.555166 255 0 0 
1.46116 0.073009 0.55583 255 0 0 
1.46186 0.0725374 0.556414 255 0 0 
1.46306 0.0720312 0.557081 255 0 0 
1.47339 0.0631559 0.619782 255 0 0 
1.45684 0.0825752 0.651442 255 0 0 
1.45037 0.0854178 0.647718 255 0 0 
1.44776 0.0876342 0.645196 255 0 0 
1.44654 0.0902531 0.642437 255 0 0 
1.44615 0.0911312 0.641557 255 0 0 
1.5269 0.155112 0.541813 255 0 0 
1.47266 0.154878 0.583184 255 0 0 
1.47425 0.15538 0.59846 255 0 0 
1.45734 0.141971 0.571324 255 0 0 
1.4911 0.155431 0.545888 255 0 0 
1.46102 0.0550823 0.574974 255 0 0 
1.46144 0.0542627 0.575906 255 0 0 
1.46196 0.053687 0.576648 255 0 0 
1.45955 0.0900161 0.665457 255 0 0 
1.41029 0.144362 0.660427 255 0 0 
1.41318 0.143887 0.661375 255 0 0 
1.41626 0.143661 0.662147 255 0 0 
1.4559 0.144078 0.659369 255 0 0 
1.49554 0.172223 0.579249 255 0 0 
1.45041 0.112503 0.590255 255 0 0 
1.45231 0.159354 0.654772 255 0 0 
1.45412 0.156194 0.657964 255 0 0 
1.46056 0.0899033 0.665746 255 0 0 
1.46149 0.0897044 0.666053 255 0 0 
1.47266 0.147584 0.606862 255 0 0 
1.39817 0.161049 0.64542 255 0 0 
1.39929 0.159613 0.646887 255 0 0 
1.40043 0.158242 0.648299 255 0 0 
1.40203 0.156146 0.650527 255 0 0 
1.40321 0.154783 0.651804 255 0 0 
1.40427 0.153335 0.653274 255 0 0 
1.46247 0.0896253 0.666322 255 0 0 
1.4847 0.0538549 0.57894 255 0 0 
1.48528 0.0532425 0.579658 255 0 0 
1.48619 0.0517252 0.58138 255 0 0 
1.48658 0.0508961 0.582314 255 0 0 
1.48703 0.0501377 0.583176 255 0 0 
1.46345 0.0894115 0.666683 255 0 0 
1.46437 0.089202 0.667005 255 0 0 
1.46533 0.0890271 0.667335 255 0 0 
1.46623 0.0887919 0.667704 255 0 0 
1.46713 0.0885466 0.668078 255 0 0 
1.4122 0.144024 0.661083 255 0 0 
1.39734 0.162645 0.645909 255 0 0 
1.3995 0.159646 0.64879 255 0 0 
1.40161 0.156711 0.651733 255 0 0 
1.40359 0.153612 0.654787 255 0 0 
1.4043 0.148829 0.659098 255 0 0 
1.44622 0.107207 0.662494 255 0 0 
1.45199 0.165567 0.653069 255 0 0 
1.42642 0.135481 0.661804 255 0 0 
1.40232 0.154535 0.655631 255 0 0 
1.45197 0.160274 0.653884 255 0 0 
1.3991 0.160044 0.652153 255 0 0 
1.45401 0.166426 0.656542 255 0 0 
1.46804 0.0883035 0.668459 255 0 0 
1.46889 0.0879906 0.668881 255 0 0 
1.39874 0.154769 0.660479 255 0 0 
1.39739 0.157015 0.660155 255 0 0 
1.39798 0.156422 0.660832 255 0 0 
1.4508 0.101912 0.668099 255 0 0 
1.46638 0.084424 0.664217 255 0 0 
1.46722 0.0840977 0.664664 255 0 0 
1.45059 0.0854203 0.649569 255 0 0 
1.45395 0.0812146 0.548317 255 0 0 
1.45421 0.0803332 0.549323 255 0 0 
1.45469 0.0796196 0.550146 255 0 0 
1.45544 0.0791455 0.550718 255 0 0 
1.45617 0.0784452 0.551561 255 0 0 
1.45635 0.0775886 0.552457 255 0 0 
1.45699 0.0770381 0.55312 255 0 0 
1.45765 0.076552 0.55372 255 0 0 
1.45842 0.0761462 0.554237 255 0 0 
1.45921 0.0757566 0.55474 255 0 0 
1.45984 0.0752034 0.555403 255 0 0 
1.46047 0.0746494 0.556062 255 0 0 
1.46118 0.0741755 0.556648 255 0 0 
1.46188 0.0737046 0.557234 255 0 0 
1.46259 0.073231 0.557818 255 0 0 
1.46329 0.0726661 0.558469 255 0 0 
1.44099 0.101302 0.65003 255 0 0 
1.45589 0.0827632 0.651124 255 0 0 
1.44244 0.101225 0.606253 255 0 0 
1.46592 0.147917 0.58686 255 0 0 
1.44805 0.0936969 0.658231 255 0 0 
1.45824 0.134187 0.601257 255 0 0 
1.45904 0.0589875 0.5726 255 0 0 
1.45953 0.0582521 0.573525 255 0 0 
1.46021 0.0579014 0.573997 255 0 0 
1.48702 0.115368 0.521784 255 0 0 
1.46135 0.0564603 0.575518 255 0 0 
1.46168 0.0556298 0.576489 255 0 0 
1.46219 0.0550008 0.577269 255 0 0 
1.46974 0.0876845 0.669296 255 0 0 
1.47063 0.0874286 0.669683 255 0 0 
1.47147 0.0871215 0.670106 255 0 0 
1.47243 0.0869456 0.670439 255 0 0 
1.41952 0.137811 0.658492 255 0 0 
1.41805 0.140137 0.656068 255 0 0 
1.41693 0.141517 0.654652 255 0 0 
1.41434 0.1438 0.652181 255 0 0 
1.41362 0.144283 0.651624 255 0 0 
1.41292 0.144771 0.651062 255 0 0 
1.41221 0.14526 0.650503 255 0 0 
1.41154 0.145812 0.649888 255 0 0 
1.41082 0.146294 0.649329 255 0 0 
1.4094 0.147265 0.648212 255 0 0 
1.40869 0.147753 0.647651 255 0 0 
1.40802 0.148306 0.647039 255 0 0 
1.40732 0.148806 0.646469 255 0 0 
1.47338 0.0867788 0.67075 255 0 0 
1.47052 0.086146 0.66896 255 0 0 
1.48471 0.0550024 0.579756 255 0 0 
1.48523 0.0543102 0.580551 255 0 0 
1.48556 0.0534092 0.581552 255 0 0 
1.48588 0.0525036 0.582552 255 0 0 
1.48633 0.0517453 0.583415 255 0 0 
1.48672 0.0509132 0.584349 255 0 0 
1.48715 0.0501762 0.585204 255 0 0 
1.48779 0.0496439 0.585853 255 0 0 
1.48841 0.0491141 0.586543 255 0 0 
1.41 0.141056 0.640807 255 0 0 
1.46668 0.0959647 0.674381 255 0 0 
1.41154 0.1451 0.656101 255 0 0 
1.40131 0.152669 0.660903 255 0 0 
1.45491 0.125772 0.589116 255 0 0 
1.47141 0.0858989 0.669347 255 0 0 
1.42553 0.134552 0.660539 255 0 0 
1.42115 0.137341 0.657281 255 0 0 
1.41758 0.141185 0.653188 255 0 0 
1.40829 0.14747 0.645921 255 0 0 
1.46678 0.143397 0.604979 255 0 0 
1.47275 0.151111 0.602358 255 0 0 
1.45621 0.150914 0.659176 255 0 0 
1.455 0.0911764 0.663596 255 0 0 
1.41113 0.145991 0.655246 255 0 0 
1.40123 0.155764 0.644921 255 0 0 
1.40061 0.156398 0.644253 255 0 0 
1.39815 0.155422 0.65965 255 0 0 
1.39703 0.157863 0.659331 255 0 0 
1.41134 0.146493 0.653021 255 0 0 
1.40738 0.149835 0.649376 255 0 0 
1.40018 0.158186 0.646398 255 0 0 
1.47296 0.148918 0.604604 255 0 0 
1.42256 0.13275 0.646616 255 0 0 
1.41477 0.137611 0.644547 255 0 0 
1.46553 0.0847346 0.663792 255 0 0 
1.45288 0.0841823 0.651111 255 0 0 
1.45132 0.0849766 0.650122 255 0 0 
1.45434 0.0829093 0.548663 255 0 0 
1.45451 0.0818113 0.549847 255 0 0 
1.45499 0.0811085 0.550669 255 0 0 
1.45568 0.0805509 0.551302 255 0 0 
1.4563 0.0799326 0.551982 255 0 0 
1.45645 0.0788985 0.553153 255 0 0 
1.45711 0.0783474 0.553807 255 0 0 
1.45774 0.0777937 0.554465 255 0 0 
1.45852 0.0774009 0.554977 255 0 0 
1.45935 0.077077 0.555412 255 0 0 
1.46006 0.0766019 0.555999 255 0 0 
1.46058 0.0758983 0.556788 255 0 0 
1.46129 0.0754271 0.557373 255 0 0 
1.46201 0.0749533 0.557956 255 0 0 
1.46277 0.0744716 0.55852 255 0 0 
1.46351 0.0738161 0.559299 255 0 0 
1.44346 0.0989321 0.652658 255 0 0 
1.45536 0.130812 0.59434 255 0 0 
1.44469 0.104419 0.630298 255 0 0 
1.44228 0.116475 0.6609 255 0 0 
1.46402 0.0947224 0.669433 255 0 0 
1.46317 0.0950349 0.669017 255 0 0 
1.45972 0.0607506 0.572717 255 0 0 
1.45999 0.0599595 0.57373 255 0 0 
1.46052 0.059352 0.574499 255 0 0 
1.46127 0.0588755 0.575037 255 0 0 
1.46174 0.0580271 0.575898 255 0 0 
1.46206 0.0572099 0.576891 255 0 0 
1.46253 0.0564459 0.577741 255 0 0 
1.46312 0.0558929 0.578463 255 0 0 
1.4639 0.0555019 0.578961 255 0 0 
1.46486 0.0552662 0.579258 255 0 0 
1.44318 0.12345 0.664195 255 0 0 
1.4092 0.146063 0.645428 255 0 0 
1.47232 0.0856619 0.669712 255 0 0 
1.44311 0.110094 0.65927 255 0 0 
1.44696 0.0916803 0.654264 255 0 0 
1.39839 0.160133 0.644361 255 0 0 
1.40074 0.157475 0.64713 255 0 0 
1.40309 0.154913 0.649795 255 0 0 
1.45335 0.143807 0.655233 255 0 0 
1.45372 0.142831 0.656121 255 0 0 
1.45412 0.141933 0.656933 255 0 0 
1.45452 0.141145 0.657834 255 0 0 
1.45497 0.140479 0.658569 255 0 0 
1.45277 0.126629 0.610117 255 0 0 
1.48349 0.0573001 0.579227 255 0 0 
